# .PCD v0.7 - Point Cloud Data file format
VERSION 0.7
FIELDS x y z
SIZE 4 4 4
TYPE F F F
COUNT 1 1 1
WIDTH 532
HEIGHT 1
VIEWPOINT 0 0 0 1 0 0 0
POINTS 532
DATA ascii
0.60249001 -0.29460001 -1.75765
0.59895998 -0.30096999 -1.7481
0.67119998 -0.30487999 -1.7187001
0.56555003 -0.32857999 -1.6945
0.74474996 -0.33705997 -1.6835752
0.75447673 -0.33364999 -1.6842333
0.76463807 -0.33595401 -1.68144
0.77356339 -0.33546999 -1.6817333
0.75611001 -0.32960001 -1.6813999
0.763156 -0.32567799 -1.6833799
0.77237999 -0.32170999 -1.6866
0.77601004 -0.31867498 -1.6840501
-0.89695001 -0.37099001 -1.6782
0.72411001 -0.34408501 -1.6728001
0.74621856 -0.3425743 -1.6735001
0.75967002 -0.34024 -1.6727
0.64125001 -0.33587 -1.6778001
0.73579001 -0.33717999 -1.6748
0.74408668 -0.33587334 -1.6775001
0.75479996 -0.33684751 -1.677525
0.76600283 -0.33622715 -1.6767429
0.77390254 -0.33242249 -1.6758499
0.75621498 -0.32668501 -1.67555
0.76575297 -0.32421601 -1.67396
0.79812002 -0.32655501 -1.6703501
0.54391003 -0.34814 -1.6611
0.70719004 -0.347105 -1.6645
0.71752995 -0.34532142 -1.6619002
0.72459084 -0.3458091 -1.6643363
0.73354 -0.34701332 -1.664
0.7464 -0.3426275 -1.6638501
0.75102997 -0.34062499 -1.66635
0.78535223 -0.34539112 -1.6627111
0.79424715 -0.34437996 -1.6667856
0.72838002 -0.33746001 -1.6672
0.73110002 -0.33717999 -1.6658
0.74623001 -0.33068001 -1.6693
0.75327003 -0.33509499 -1.6651001
0.76558399 -0.335246 -1.6636
0.77379197 -0.33123398 -1.6651399
0.78507125 -0.33476752 -1.6631
0.79449219 -0.33431357 -1.6665217
0.75854999 -0.32586998 -1.6669
0.79422152 -0.32425076 -1.6680846
0.80219996 -0.32608002 -1.6680501
0.68297005 -0.35311002 -1.6523499
0.69537669 -0.35387668 -1.6531833
0.70492667 -0.35554501 -1.6514333
0.71322 -0.35292 -1.6514
0.72510999 -0.35255 -1.6578
0.75548172 -0.35701168 -1.6514834
0.69453335 -0.34863332 -1.6525999
0.70410424 -0.3451986 -1.6529429
0.71147001 -0.34441 -1.6599
0.72640997 -0.34847 -1.6545
0.73397601 -0.34540203 -1.6562999
0.74378496 -0.34192002 -1.65415
0.75658202 -0.34507003 -1.6515
0.76455075 -0.34480143 -1.6540642
0.77470076 -0.34515154 -1.6570385
0.78384 -0.34295502 -1.6592749
0.72229999 -0.33346 -1.6562999
0.74862999 -0.33939999 -1.6523
0.75618666 -0.33879831 -1.6533667
0.76528096 -0.33671302 -1.6562401
0.77438539 -0.33475843 -1.6570923
0.78274661 -0.33626667 -1.6592001
0.61207002 -0.36346 -1.6441
0.65811002 -0.36256999 -1.64405
0.53394997 -0.35784999 -1.6499
0.61475998 -0.35664999 -1.6444
0.67451167 -0.35804167 -1.6443499
0.68519747 -0.3537325 -1.6429999
0.69403833 -0.35500333 -1.6434666
0.70475006 -0.35186598 -1.6464399
0.71316999 -0.35304499 -1.6479
0.72975999 -0.35225999 -1.6402
0.73721427 -0.35591716 -1.6423142
0.74502701 -0.355129 -1.64547
0.75444001 -0.352328 -1.6486
0.61745 -0.34812 -1.6449
0.68878996 -0.34887499 -1.6445
0.69536799 -0.348396 -1.6461599
0.70289743 -0.34814751 -1.6489999
0.72517997 -0.34719333 -1.6457334
0.73529094 -0.34515899 -1.6437002
0.74510598 -0.34547168 -1.6444111
0.75410336 -0.34333333 -1.6464001
0.74757004 -0.339975 -1.6468999
-0.98505002 -0.40351999 -1.6309
0.64925504 -0.36577499 -1.6352501
0.66773498 -0.361045 -1.63325
0.67639399 -0.3608 -1.63526
0.68114001 -0.36011001 -1.6368001
0.70902663 -0.36610666 -1.6303333
0.71548998 -0.36431128 -1.6325125
0.72446752 -0.36495754 -1.6366916
0.73071003 -0.36250001 -1.6398
0.65616 -0.35942999 -1.6337
0.66595 -0.35824668 -1.6335999
0.67542583 -0.35443246 -1.6350166
0.68460226 -0.35715333 -1.6346445
0.69320661 -0.35571334 -1.6349334
0.70677996 -0.35142335 -1.6336333
0.71510661 -0.35507333 -1.6320556
0.72504425 -0.35508069 -1.63675
0.73355001 -0.35377002 -1.6392
0.71607757 -0.34847751 -1.634625
0.72469878 -0.34758127 -1.6373501
0.73220503 -0.34776998 -1.6393
0.64369529 -0.37510115 -1.6240412
0.68742996 -0.37411499 -1.6215668
0.69529325 -0.37470582 -1.6247584
0.64674503 -0.365583 -1.6244301
0.65086001 -0.36524001 -1.6214
0.66521204 -0.36187202 -1.62312
0.67365336 -0.36162665 -1.6281333
0.68599141 -0.36543289 -1.6222713
0.69483936 -0.36447689 -1.6236812
0.70415127 -0.36498123 -1.6269001
0.71193004 -0.36140001 -1.6271
0.64998001 -0.35837001 -1.6210999
0.65720993 -0.35802665 -1.6247667
0.66327 -0.35819 -1.6281
0.67791998 -0.35896999 -1.6238
0.68540138 -0.35868999 -1.6225998
0.69528282 -0.35594359 -1.6256359
0.705387 -0.35549927 -1.627131
0.71252996 -0.35328665 -1.6289667
-0.82726997 -0.42596 -1.6108
0.64806753 -0.37512168 -1.6173415
0.65464103 -0.37430897 -1.6127948
0.66485435 -0.37502503 -1.612043
0.67468649 -0.37480217 -1.6147071
0.68259281 -0.37519714 -1.6180286
0.59522998 -0.36511999 -1.6134
0.6479643 -0.36619714 -1.6181142
0.65430564 -0.36513004 -1.6137778
0.66645914 -0.36453819 -1.6135091
0.67487341 -0.36429137 -1.6151867
0.68320197 -0.36457402 -1.61842
0.64910001 -0.35960001 -1.619
0.67610002 -0.35982001 -1.62
0.68586999 -0.35809001 -1.6199
-0.95485002 -0.43186 -1.601
-0.82641 -0.42710999 -1.6086
0.66364998 -0.38292 -1.6097
0.65812498 -0.37788498 -1.6097
0.66320002 -0.37794 -1.6099
0.65817666 -0.36587334 -1.6091666
0.66290796 -0.367226 -1.60906
-0.95370501 -0.43729749 -1.594175
-0.81772 -0.42743 -1.5968
0.58113003 -0.38363001 -1.5987
0.58250999 -0.37643999 -1.5964
-0.94810998 -0.43985 -1.5801001
-0.80689001 -0.43920001 -1.584
-0.81384999 -0.42684999 -1.5885
-0.94328666 -0.43232667 -1.5755
0.56389999 -0.40481001 -1.5754
0.92666 -0.39257833 -1.5731834
-0.89754498 -0.44069499 -1.56795
-0.898 -0.43533999 -1.5639
0.48019001 -0.40355 -1.5638
0.92808002 -0.39548427 -1.5687571
-0.78654999 -0.45800501 -1.5546501
-0.94905001 -0.44483 -1.5554
0.47034001 -0.41499999 -1.5503
0.54728001 -0.4163 -1.5551
-0.78595001 -0.46191999 -1.5451
-0.77999997 -0.45403999 -1.5412
-0.94555002 -0.44617 -1.5487
0.47217 -0.41271001 -1.548
-0.94714999 -0.46590748 -1.533425
-0.86913002 -0.45835999 -1.5332
-0.7842567 -0.45764002 -1.538
0.53298002 -0.42820001 -1.5323
-0.77450001 -0.47530001 -1.5224
-0.76138002 -0.47048 -1.5290999
-0.75507253 -0.4730075 -1.5260999
-0.94011003 -0.46169001 -1.5221
-0.90338999 -0.46628001 -1.5209
-0.77787 -0.45739001 -1.5216501
-0.90942001 -0.48487499 -1.51395
-0.84855002 -0.48181 -1.5172
-0.90640002 -0.47678 -1.5171
-0.90289998 -0.46755999 -1.5196
0.51828998 -0.43990001 -1.5152
-0.90948999 -0.48703 -1.5072
-0.90306002 -0.47485 -1.5052
-0.89810997 -0.47101 -1.5033
-0.74476999 -0.47584 -1.5031
-0.74488002 -0.4671025 -1.5043501
0.44804999 -0.42857999 -1.5099
-0.74541497 -0.48613 -1.4943
-0.83226001 -0.47713 -1.4921
-0.73983002 -0.47821999 -1.4908
0.43562001 -0.45478001 -1.4993
0.43917999 -0.43966001 -1.498
0.51002002 -0.43746999 -1.4958
-0.90511 -0.50062001 -1.4884
0.49623999 -0.45684999 -1.4848
0.49715 -0.44955 -1.4821
-0.90167999 -0.50426 -1.4746
-0.812585 -0.50208998 -1.4755
-0.89600003 -0.49188501 -1.4742999
-0.74725002 -0.48120001 -1.4794
0.48785001 -0.46697 -1.4751
-0.89674002 -0.51059997 -1.4693
-0.89625001 -0.50876999 -1.469
-0.73078001 -0.48982 -1.4658999
-0.88935 -0.51072001 -1.4554
-0.91640002 -0.50840002 -1.4581
-0.89278001 -0.50348997 -1.4583
-0.88688999 -0.50784999 -1.4518
-0.80202001 -0.50240999 -1.4597
-0.72545999 -0.50057501 -1.4567499
-0.89179999 -0.49425 -1.4597
-0.79978001 -0.49952 -1.456
0.47214001 -0.47922 -1.4529001
0.41124001 -0.46680999 -1.4503
-0.89561999 -0.51112998 -1.443
-0.71447998 -0.51836002 -1.4452
0.40417999 -0.48119998 -1.44495
0.40606999 -0.47749001 -1.4477
0.4102 -0.46318999 -1.4485
0.47391999 -0.46443 -1.4479001
-0.78094 -0.52591002 -1.4388
-0.77675003 -0.52658999 -1.436
-0.89112997 -0.51994997 -1.4315
-0.70820999 -0.517995 -1.4373
-0.92522001 -0.53621 -1.4227
-0.87803 -0.53347003 -1.4259
-0.77147001 -0.52570999 -1.4248
-0.76840502 -0.52781498 -1.4239
-0.91442001 -0.51710999 -1.4279
0.3994 -0.49774 -1.42535
0.40161997 -0.49445671 -1.426411
0.40175331 -0.49635577 -1.4157333
0.399865 -0.48556501 -1.4153
0.40193 -0.48503199 -1.4152601
-0.86407495 -0.54368496 -1.4015501
-0.76458335 -0.54438668 -1.4027333
-0.67888999 -0.53727001 -1.4001
-0.93123001 -0.55768001 -1.3903
-0.92515999 -0.55155998 -1.3993
-0.85868001 -0.54440498 -1.391
-0.76272249 -0.54479247 -1.3921
-0.75409389 -0.54475993 -1.3956555
-0.7464816 -0.54509002 -1.3931583
-0.67786998 -0.54521197 -1.3944
-0.86177999 -0.53368002 -1.3951
-0.74702996 -0.53940004 -1.3939333
-0.67653 -0.53825003 -1.3938
-0.92834002 -0.55659997 -1.3857
-0.78574502 -0.55603004 -1.3863499
-0.77700996 -0.55342001 -1.3877667
-0.76857001 -0.55154997 -1.383
-0.74291503 -0.55032003 -1.388
-0.73486996 -0.55176997 -1.3856001
-0.67746794 -0.55395204 -1.38509
-0.87119001 -0.54579997 -1.3846
-0.76367754 -0.54689252 -1.38535
-0.75645 -0.54231602 -1.38446
-0.74173498 -0.54844999 -1.3893
-0.73749244 -0.54686499 -1.385275
-0.67572498 -0.54487503 -1.3822
-0.75423503 -0.53961498 -1.3851
-0.67297667 -0.53582662 -1.3835001
-0.78913999 -0.56173003 -1.3724999
-0.92022002 -0.55638999 -1.3716
-0.91789001 -0.55693001 -1.3729
-0.78369999 -0.55600333 -1.3757666
-0.77478999 -0.55422002 -1.3701
-0.67657775 -0.55512667 -1.3748667
-0.77291 -0.54825002 -1.3747
-0.76227248 -0.54382503 -1.37565
-0.75810498 -0.54193497 -1.3768001
-0.67515886 -0.54412001 -1.3749777
-0.91759998 -0.56314999 -1.3642
-0.92541999 -0.55848998 -1.3685
-0.77483338 -0.55423999 -1.3660334
-0.91602999 -0.54979998 -1.3669
-0.7710166 -0.54787999 -1.3646332
-0.76522756 -0.54552996 -1.366425
-0.85623997 -0.57402998 -1.345
-0.79813004 -0.57768667 -1.3435334
-0.78712499 -0.571675 -1.3487
-0.79426003 -0.56608999 -1.3444999
-0.78288668 -0.56601667 -1.3432999
-0.93273002 -0.58248997 -1.3348
-0.82981002 -0.58511001 -1.3302
-0.91736001 -0.57915998 -1.3346
-0.85275 -0.57973999 -1.3358999
-0.79440999 -0.57420504 -1.33235
-0.79280001 -0.56671 -1.3353
-0.7842083 -0.56498498 -1.3333834
-0.91852999 -0.59263331 -1.327
-0.92543 -0.58143002 -1.3255
-0.91471004 -0.58407998 -1.32775
-0.84851003 -0.58469498 -1.3257
-0.83682001 -0.58717501 -1.3224499
-0.82981002 -0.58644998 -1.3296
-0.80625337 -0.58400673 -1.3252667
-0.79869002 -0.58322001 -1.3221999
-0.90608001 -0.57793999 -1.3209
-0.79266667 -0.5728367 -1.3224667
-0.91526669 -0.59750003 -1.3153667
-0.83824998 -0.59483999 -1.3131
-0.91096663 -0.58528334 -1.3152333
-0.90834999 -0.58517998 -1.3162
-0.83598 -0.58616 -1.3184
-0.80299503 -0.58332503 -1.319
-0.79716003 -0.58244002 -1.3135999
-0.84078002 -0.57929999 -1.3134
-0.79263002 -0.57694 -1.3186001
-0.93344003 -0.60336 -1.3074
-0.82751 -0.60273999 -1.306
-0.81165004 -0.60244 -1.30705
-0.90688998 -0.59004003 -1.306
-0.83025998 -0.59338999 -1.3099
-0.80837661 -0.59533668 -1.3047667
-0.83379 -0.58769 -1.3077
-0.80057001 -0.58757001 -1.3005
-0.81019002 -0.60127002 -1.2959
-0.91696 -0.59753001 -1.2981
-0.83231002 -0.59148997 -1.2917
-0.814825 -0.59274501 -1.2945
-0.80770504 -0.59507501 -1.2997
-0.80178666 -0.58688664 -1.2954999
-0.91373503 -0.61669004 -1.2835
-0.90412998 -0.61149001 -1.2875333
-0.8955 -0.61509001 -1.2852499
-0.82858503 -0.61307001 -1.2859499
-0.81224 -0.61773002 -1.2805001
-0.90711749 -0.60783756 -1.2871499
-0.89839 -0.60128999 -1.2859
-0.83704001 -0.6031 -1.2897
-0.801085 -0.59415495 -1.2839501
-0.91004002 -0.61785001 -1.2711
-0.90701997 -0.61857998 -1.2709
-0.90366 -0.60888004 -1.2733666
-0.83104002 -0.60887003 -1.2755001
-0.81510997 -0.60245001 -1.2732999
-0.80785 -0.60846496 -1.2763
-0.81278002 -0.59696001 -1.2799
-0.88214999 -0.62494504 -1.2648001
-0.79413998 -0.62917 -1.2618999
-0.77814502 -0.62380499 -1.2641001
-0.76805001 -0.62496001 -1.2632
-0.90406001 -0.61211002 -1.2689
-0.89810002 -0.61646998 -1.2618001
-0.88326001 -0.61265999 -1.27
-0.82753998 -0.61655003 -1.2651
-0.82383341 -0.63112998 -1.2563334
-0.90196002 -0.62747997 -1.2523
-0.83125001 -0.62976998 -1.26
-0.81079 -0.62523001 -1.2509
-0.80638003 -0.62509501 -1.2537999
-0.78109002 -0.62067002 -1.2512
-0.76397002 -0.62658 -1.2598
-0.901425 -0.61881995 -1.2556
-0.89544499 -0.61543 -1.2549
-0.86824501 -0.61788499 -1.25685
-0.80831999 -0.61566001 -1.2508
-0.80711001 -0.60943002 -1.2572
-0.90289003 -0.63572997 -1.2461001
-0.86501002 -0.63652003 -1.2471499
-0.85531002 -0.63600498 -1.24615
-0.82423002 -0.63178998 -1.2454
-0.81467003 -0.63155001 -1.2439667
-0.74264002 -0.63806999 -1.2411499
-0.7350325 -0.63566995 -1.24235
-0.89438999 -0.62184 -1.2472
-0.85927999 -0.62304997 -1.2434
-0.81233501 -0.62613499 -1.2449501
-0.81 -0.62611997 -1.2431999
-0.79627001 -0.62463999 -1.24815
-0.78812999 -0.62321001 -1.2469
-0.76290405 -0.62367404 -1.2459199
-0.75410181 -0.6228745 -1.2444727
-0.74629998 -0.62690663 -1.2417668
-0.86843002 -0.61816001 -1.2460999
-0.79467499 -0.61591995 -1.2464499
-0.76106668 -0.61737996 -1.2424667
-0.75825751 -0.61820245 -1.2430249
-0.75539398 -0.64256203 -1.23338
-0.72793144 -0.6434043 -1.2323999
-0.89726752 -0.63719499 -1.2350249
-0.85501999 -0.63441002 -1.2352999
-0.84963 -0.63709003 -1.235
-0.81871003 -0.63468999 -1.2333
-0.76375997 -0.63584501 -1.23685
-0.75557327 -0.63497663 -1.2317667
-0.7430346 -0.63480467 -1.2346598
-0.73343903 -0.63539898 -1.2344401
-0.72953999 -0.63609999 -1.2344999
-0.89199501 -0.62418497 -1.23645
-0.81152999 -0.62515002 -1.23825
-0.80526501 -0.62334663 -1.2362833
-0.76334 -0.62032002 -1.238
-0.752244 -0.62236804 -1.2346599
-0.7446593 -0.62632143 -1.2331499
-0.73667276 -0.6276564 -1.2337364
-0.84384501 -0.641895 -1.2272
-0.83375001 -0.64945 -1.2208
-0.76262999 -0.64823496 -1.2221
-0.75598001 -0.64365 -1.2261333
-0.74307245 -0.64530116 -1.225377
-0.73543501 -0.64505506 -1.2277501
-0.72768754 -0.64595169 -1.2272917
-0.893085 -0.63716 -1.2263501
-0.7542966 -0.63230997 -1.2245667
-0.7449984 -0.63526618 -1.2263039
-0.81419998 -0.62764001 -1.2280999
-0.89614326 -0.65481502 -1.21525
-0.82556671 -0.65568 -1.2111334
-0.81820339 -0.65451664 -1.2162
-0.78376853 -0.65407854 -1.2153857
-0.77360433 -0.65605289 -1.2149285
-0.76305336 -0.65590668 -1.2129999
-0.75437784 -0.65635341 -1.212526
-0.74357998 -0.65396804 -1.2144001
-0.89118004 -0.64399505 -1.2141
-0.88795 -0.64727002 -1.212
-0.83345997 -0.64656001 -1.2107
-0.7740733 -0.64388996 -1.2171
-0.76250005 -0.64879006 -1.2156334
-0.75618666 -0.64556664 -1.2147833
-0.7440567 -0.64440006 -1.2180001
-0.73841 -0.64731002 -1.2121
-0.83089 -0.63747001 -1.2106
-0.81102329 -0.63555998 -1.2178999
-0.76506001 -0.6372 -1.2155
-0.7545867 -0.6323933 -1.2154335
-0.74456 -0.63971001 -1.2176
-0.8175 -0.66127998 -1.2055
-0.89170003 -0.65309 -1.2048
-0.88955998 -0.65375 -1.206
-0.8308 -0.65250999 -1.2079999
-0.81681001 -0.65863502 -1.2028
-0.78394002 -0.6552 -1.2043999
-0.77408749 -0.65654749 -1.207975
-0.76537663 -0.65551001 -1.2025
-0.75718802 -0.65495795 -1.20696
-0.74589998 -0.65549749 -1.2061
-0.73597997 -0.65441597 -1.20532
-0.72797 -0.65872002 -1.2069
-0.88559335 -0.64440995 -1.2058333
-0.82344002 -0.64941001 -1.2067
-0.80717999 -0.64304501 -1.2063999
-0.77508003 -0.64552999 -1.2088
-0.76112998 -0.64863503 -1.2041
-0.75178856 -0.64517707 -1.2024715
-0.74702936 -0.64380682 -1.2048938
-0.80768001 -0.63938999 -1.2093
-0.74819505 -0.63888001 -1.2082
-0.88792342 -0.66639 -1.1943666
-0.82449335 -0.66424328 -1.1987333
-0.78298599 -0.66565001 -1.19328
-0.74544203 -0.66538799 -1.19494
-0.73729616 -0.66534221 -1.1954218
-0.89007002 -0.65930003 -1.1985
-0.82460999 -0.65354002 -1.19835
-0.78184336 -0.6566 -1.1937
-0.77296001 -0.65469337 -1.1956
-0.76564664 -0.65574002 -1.1913999
-0.75766504 -0.65056503 -1.1928999
-0.74301499 -0.65874499 -1.1921999
-0.88305497 -0.64670503 -1.19835
-0.82729 -0.64649999 -1.199
-0.80830997 -0.64924997 -1.1997
-0.76262999 -0.64881998 -1.1927
-0.75449473 -0.6455431 -1.1941475
-0.8837955 -0.6656667 -1.1838778
-0.78345126 -0.66874182 -1.1848412
-0.77789199 -0.66508806 -1.1866001
-0.76050001 -0.66996998 -1.1823
-0.75477773 -0.66925782 -1.1841667
-0.744735 -0.66541493 -1.184875
-0.73843503 -0.66546249 -1.1844
-0.88120335 -0.65797669 -1.1835667
-0.87926 -0.65640998 -1.1863
-0.80488998 -0.65161002 -1.1862
-0.78144801 -0.65655005 -1.18382
-0.77519161 -0.65415663 -1.1833833
-0.7660287 -0.65242934 -1.1831499
-0.75858998 -0.65011001 -1.1892999
-0.74021 -0.65786999 -1.1808
-0.73392999 -0.65367752 -1.1856
-0.72943997 -0.65079999 -1.1847
-0.8861779 -0.67631358 -1.1758944
-0.87921 -0.67366999 -1.1712
-0.82455736 -0.67651331 -1.1758473
-0.79237282 -0.67676055 -1.1765486
-0.78516179 -0.67495644 -1.1727793
-0.77560639 -0.67614919 -1.1744095
-0.76532775 -0.67585582 -1.1767001
-0.75393301 -0.67609203 -1.1756158
-0.74814057 -0.67538333 -1.1746222
-0.88138002 -0.66992998 -1.1772
-0.877855 -0.66325498 -1.1747
-0.81492329 -0.66539836 -1.1777166
-0.80817002 -0.66079998 -1.1709
-0.78530103 -0.66741008 -1.1748111
-0.77807599 -0.66130602 -1.1754801
-0.75390333 -0.66972333 -1.1772
-0.74425876 -0.66579497 -1.1748375
-0.73654002 -0.66346997 -1.1755667
-0.87866998 -0.65776002 -1.1792001
-0.74044001 -0.65932 -1.1747
-0.73178667 -0.65573996 -1.1754333
-0.8819012 -0.67251182 -1.1672471
-0.87835222 -0.67119336 -1.1657444
-0.81816179 -0.67276305 -1.1669129
-0.79143 -0.67373002 -1.1694
-0.78497046 -0.6737619 -1.1682504
-0.77629203 -0.6735 -1.169242
-0.76138002 -0.67518997 -1.1696
-0.75314015 -0.67167014 -1.1650058
-0.74737722 -0.67140472 -1.1649442
-0.88048339 -0.66876334 -1.1638666
-0.87691897 -0.66810608 -1.1623352
-0.81391162 -0.66793174 -1.1651666
-0.80923998 -0.66354001 -1.166
-0.78377175 -0.66551334 -1.1643778
-0.77868003 -0.66060001 -1.1681
-0.75110149 -0.66948712 -1.1627214
-0.74547637 -0.66792262 -1.1625198
-0.73753273 -0.66234225 -1.1637998
-0.75190002 -0.66897672 -1.1589667
-0.74641353 -0.66783851 -1.1591703
