# .PCD v0.7 - Point Cloud Data file format
VERSION 0.7
FIELDS x y z
SIZE 4 4 4
TYPE F F F
COUNT 1 1 1
WIDTH 376
HEIGHT 1
VIEWPOINT 0 0 0 1 0 0 0
POINTS 376
DATA ascii
-0.87931001 -0.37549999 -1.65535
0.618025 -0.42072499 -1.64745
0.62532127 -0.42542312 -1.6460063
0.63238794 -0.42687002 -1.64186
0.65683001 -0.42678499 -1.64355
0.51428002 -0.41497999 -1.6424
0.62213194 -0.41558594 -1.6425202
0.66404998 -0.41876999 -1.6431333
-1.0087 -0.36008999 -1.6447001
-1.0258 -0.35966 -1.6427
-1.0183001 -0.35473999 -1.6436
0.63714999 -0.43015999 -1.6398
0.64300001 -0.43134999 -1.6377667
0.65057999 -0.43184 -1.6396
0.50739998 -0.42943001 -1.637
0.58805001 -0.42348999 -1.6341
0.62918001 -0.42373502 -1.6385
0.63539141 -0.42394498 -1.6355287
0.64226574 -0.42603856 -1.6334858
0.65556002 -0.42611 -1.6375
0.62601423 -0.4149029 -1.6374357
0.63332927 -0.41528934 -1.6324266
0.64182001 -0.41914999 -1.6312
0.65206999 -0.41768 -1.6322
0.66905999 -0.41372001 -1.6338501
0.59180999 -0.40726 -1.632
0.61818624 -0.40360999 -1.6383374
0.62482238 -0.40495482 -1.6353811
0.63179398 -0.40673003 -1.6326599
0.62342435 -0.39346573 -1.6334144
0.63233668 -0.39268669 -1.6327667
-1.0063334 -0.35794333 -1.6346999
-0.88050997 -0.34185001 -1.6311001
0.63783997 -0.42216 -1.6289999
0.64512873 -0.42247751 -1.6285875
0.63753247 -0.4137325 -1.6287249
0.64417064 -0.41425377 -1.6268876
0.65402377 -0.41327003 -1.62605
0.66104501 -0.41140503 -1.6247
0.63552314 -0.40478262 -1.6265262
0.64461577 -0.40463731 -1.6233842
0.65459311 -0.40522769 -1.6218387
0.66398144 -0.40534714 -1.6224285
0.67220002 -0.40795001 -1.6279
0.51533997 -0.39206001 -1.6266
0.62587112 -0.39675224 -1.6284112
0.63580942 -0.39498115 -1.6270889
0.64444524 -0.39540574 -1.6234579
0.65417498 -0.39403832 -1.6215998
0.66491336 -0.39629999 -1.6226667
0.67442501 -0.39605001 -1.6250499
0.63718498 -0.3867375 -1.6283877
0.64428258 -0.38580564 -1.6240375
0.67676663 -0.38693666 -1.6218334
0.68491203 -0.38336998 -1.62288
0.69282502 -0.3814775 -1.624975
-1.0053999 -0.35386997 -1.6278
0.65728253 -0.40231749 -1.6191249
0.66623336 -0.40020666 -1.6175333
0.5086 -0.39155 -1.6173
0.64820331 -0.39246666 -1.6187
0.65528667 -0.39634001 -1.6181749
0.66495496 -0.39457196 -1.6176698
0.64728302 -0.382911 -1.6181101
0.65472901 -0.38541999 -1.614485
0.66431075 -0.38445002 -1.6130501
0.6737743 -0.38428998 -1.6164142
0.65143996 -0.35816333 -1.6150999
0.64994001 -0.35870001 -1.6073999
0.65434998 -0.35918999 -1.6095999
-0.87497997 -0.27686 -1.59365
0.51257002 -0.31851 -1.5821
0.60339999 -0.28922999 -1.5844001
-0.97672999 -0.25992 -1.5849
-0.99138999 -0.1745 -1.558
-0.88195002 -0.18823999 -1.5466
0.60080999 -0.20229 -1.5283999
0.59679002 -0.19513001 -1.5213
0.59788001 -0.18853 -1.5182
0.60663998 -0.15614 -1.5151
0.52064002 -0.15029 -1.5026
0.53113002 -0.12511 -1.5089
0.52570999 -0.12992001 -1.4967
0.80277002 -0.10133 -1.493
0.79528999 -0.099735998 -1.4921
-0.87094998 -0.074579 -1.497
0.52433002 -0.12027 -1.4881999
0.80588496 -0.102255 -1.4848001
0.813375 -0.10381 -1.4856999
0.767205 -0.091362998 -1.4855
0.7756567 -0.093254834 -1.4855667
0.78351998 -0.095265001 -1.4821
0.79472399 -0.098577 -1.4840801
0.76290196 -0.087556608 -1.48524
0.79914999 -0.10027 -1.4773999
0.80577332 -0.10186001 -1.472
0.81399006 -0.10445666 -1.4739333
0.82534665 -0.10685333 -1.4736334
0.83208001 -0.10886 -1.4749
0.77583498 -0.09188325 -1.4756751
0.78503251 -0.095121995 -1.474225
0.79654604 -0.098008797 -1.4756999
0.74759495 -0.080711499 -1.4734
0.75534248 -0.084177747 -1.4750999
0.76312834 -0.088016503 -1.4733334
0.77056998 -0.089616001 -1.4754
0.72603172 -0.072452001 -1.47475
0.73530251 -0.076785497 -1.4760001
0.74447 -0.079172499 -1.4737
0.70875001 -0.064759001 -1.4765
0.71419251 -0.066996753 -1.477425
0.74944001 -0.080861337 -1.4669
0.75550836 -0.083543159 -1.4660001
0.60579002 -0.078833997 -1.4674
0.72696495 -0.072317503 -1.4667
0.73429662 -0.075928837 -1.4662666
0.74669999 -0.078810498 -1.4669499
0.68355 -0.068530999 -1.4657
0.69766003 -0.061050002 -1.4634
0.71373004 -0.067216329 -1.4670666
0.72059 -0.069899999 -1.4643
0.65720999 -0.050652999 -1.46085
0.69458002 -0.059760999 -1.4687999
-0.18054999 -0.043570999 -1.4687999
0.64898002 -0.041870002 -1.4601001
0.66441399 -0.045488402 -1.4645201
0.67277998 -0.047993001 -1.4693
0.64789599 -0.032005802 -1.4616001
0.65820003 -0.036113001 -1.46305
0.72362 -0.071176998 -1.4588
0.71639001 -0.068863496 -1.4575
0.66856003 -0.050505999 -1.4566
0.67606002 -0.053497002 -1.4562
0.68332499 -0.057068501 -1.45525
0.65331799 -0.041237403 -1.4581001
0.66499996 -0.046129599 -1.45698
0.63524002 -0.030002 -1.452
0.64637858 -0.032609858 -1.4557143
0.65441751 -0.036684752 -1.4564124
0.61211997 -0.024316 -1.4534
0.63637245 -0.025011376 -1.4555
0.64456773 -0.026497999 -1.4532223
0.63708532 -0.015734307 -1.455977
0.64249772 -0.014655156 -1.4536693
0.64591253 -0.034452129 -1.4462124
0.63686496 -0.022778666 -1.4470167
0.64617002 -0.025817409 -1.4454647
0.65131253 -0.021601252 -1.443375
0.63441002 -0.018416001 -1.4401
0.64507157 -0.015968459 -1.4446125
0.65213752 -0.015447374 -1.4422375
0.66605997 -0.011035 -1.4427
0.64619935 -0.0058346796 -1.4447602
0.65619767 -0.0041063232 -1.4451232
0.66367859 -0.0031159429 -1.4446429
0.63942999 -0.024063 -1.4383
0.64870501 -0.017609 -1.436275
0.6558587 -0.015071654 -1.4363002
0.66419536 -0.0161098 -1.4336399
0.67514557 -0.014927 -1.4339443
0.64861995 -0.0087083662 -1.4370667
0.65615004 -0.0080663003 -1.4373221
0.61708999 0.021792 -1.4302
0.79324001 -0.0060681882 -1.426211
0.61801499 0.0450975 -1.42345
0.64563 0.062476002 -1.4116
-0.88630003 0.14061999 -1.413
-0.86448997 0.14679 -1.3916
0.58583999 0.10991 -1.385
-0.78934997 0.19918001 -1.3766999
-0.77964997 0.20863999 -1.3784
-0.19532949 0.22439317 -1.3522736
-0.13558882 0.2246585 -1.3543676
-0.20043665 0.23501833 -1.3531499
-0.19594999 0.23091666 -1.3518333
-0.13571875 0.23114251 -1.3533626
-0.19348 0.22674778 -1.3485665
-0.18473683 0.22707422 -1.3480843
-0.17582779 0.22709614 -1.3469666
-0.16585222 0.22741723 -1.3474612
-0.15483415 0.22719882 -1.3485765
-0.14488001 0.22863501 -1.3495668
-0.136665 0.22841501 -1.34975
-0.20007665 0.23489666 -1.3488001
-0.1943059 0.23505174 -1.3453414
-0.18461551 0.23462658 -1.3442894
-0.17479219 0.23379913 -1.3429564
-0.16508399 0.23444058 -1.3432344
-0.15471527 0.23436525 -1.3436084
-0.14515251 0.2347381 -1.3463687
-0.1353603 0.23562768 -1.3470736
-0.12917501 0.23486501 -1.3491
-0.20013 0.24269666 -1.3480667
-0.19589576 0.24518116 -1.3423615
-0.18466091 0.24309865 -1.3412409
-0.17391334 0.24034667 -1.3426332
-0.16531 0.2402 -1.34185
-0.15423833 0.24142666 -1.3410168
-0.14488371 0.24289317 -1.3423316
-0.13502643 0.24380644 -1.3435713
-0.12919833 0.24612166 -1.34785
-0.20207 0.25743333 -1.3428
-0.1998775 0.25231248 -1.34325
-0.12907749 0.25375 -1.3418751
-0.17518856 0.23752142 -1.3390857
-0.16557601 0.238362 -1.3392999
-0.15447666 0.23740333 -1.3391334
-0.19208899 0.24482599 -1.3384498
-0.18427557 0.24659555 -1.3381944
-0.17463499 0.24537784 -1.3361468
-0.16506256 0.24475743 -1.3365687
-0.15463457 0.24517758 -1.3383999
-0.14517154 0.24761154 -1.3381768
-0.13643335 0.24809249 -1.3389584
-0.20167001 0.25742 -1.3381
-0.19464566 0.2551665 -1.3353375
-0.18490607 0.2542409 -1.3339727
-0.17581294 0.25513613 -1.3328291
-0.1648192 0.25415459 -1.3334919
-0.15460552 0.25442466 -1.3340313
-0.14484064 0.25475502 -1.3346281
-0.13532524 0.25508729 -1.3363574
-0.1290125 0.25524002 -1.3390501
-0.20159 0.26407 -1.3357
-0.19534999 0.26357409 -1.3320864
-0.18539801 0.26255801 -1.3312867
-0.17664 0.26225701 -1.33096
-0.16524287 0.26211286 -1.3310286
-0.15433124 0.26194626 -1.331425
-0.14400798 0.26282403 -1.3316733
-0.13510182 0.26466912 -1.3334485
-0.12874 0.26591998 -1.3367125
-0.20168833 0.27448165 -1.3348166
-0.19737573 0.27114424 -1.3314571
-0.18646 0.27302 -1.3321
-0.16078 0.27274001 -1.3307
-0.13474751 0.27090248 -1.3317001
-0.12895715 0.27458572 -1.3331
-0.18602 0.25841001 -1.3289
-0.17331003 0.25799289 -1.3295715
-0.16626571 0.2590757 -1.3282
-0.15563667 0.25992665 -1.3294333
-0.14922667 0.25838333 -1.3286999
-0.19342466 0.266128 -1.3277467
-0.18478411 0.26674882 -1.3274177
-0.17512679 0.26644573 -1.326625
-0.16432191 0.26595774 -1.3264647
-0.15472041 0.26596999 -1.328076
-0.14615551 0.2668905 -1.3279098
-0.13686799 0.26902002 -1.3286599
-0.20129001 0.27727503 -1.3295
-0.19424485 0.27548888 -1.3256742
-0.18479359 0.27470356 -1.3243644
-0.17526706 0.27449 -1.3226383
-0.16505694 0.27454817 -1.3224425
-0.15522 0.27444565 -1.3237534
-0.14565673 0.27485871 -1.3244201
-0.13516158 0.27562711 -1.3269025
-0.195435 0.28350183 -1.3229454
-0.185482 0.28102201 -1.3227199
-0.17654599 0.280938 -1.3223401
-0.16359624 0.28156874 -1.321825
-0.15510999 0.28178999 -1.3213
-0.1440025 0.28273001 -1.321
-0.13480146 0.28495497 -1.323341
-0.1288875 0.28530252 -1.3281
-0.13193166 0.29236165 -1.3214333
-0.12882285 0.2948586 -1.3234857
-0.18485999 0.27620998 -1.3189334
-0.17445999 0.27612501 -1.319
-0.1633625 0.27607 -1.318675
-0.15322666 0.27863333 -1.3193334
-0.14758 0.27989 -1.3186001
-0.18520701 0.28558853 -1.3171765
-0.17483713 0.28501201 -1.3174801
-0.16456224 0.28580806 -1.3171
-0.15510319 0.28543526 -1.3177562
-0.14543219 0.28518781 -1.3179109
-0.13835199 0.288486 -1.3181601
-0.17463057 0.29412782 -1.3130194
-0.16462409 0.29433414 -1.3128296
-0.15499094 0.29457346 -1.313247
-0.14558108 0.29483631 -1.3138685
-0.13527088 0.29518399 -1.3145173
-0.128685 0.29877001 -1.31715
-0.16215 0.30001 -1.3104
-0.15293001 0.30320799 -1.31058
-0.14512262 0.30413523 -1.3113478
-0.13431725 0.30421862 -1.3120208
-0.12866375 0.30588999 -1.3146625
-0.20138334 0.31445 -1.3138
-0.14127 0.31009001 -1.3121001
-0.13278499 0.31097502 -1.3101499
-0.128638 0.316154 -1.31124
-0.17561445 0.29805005 -1.3092332
-0.165198 0.29682902 -1.30919
-0.15638144 0.29826143 -1.3096143
-0.20022 0.30949 -1.3096
-0.16515127 0.30534309 -1.3063843
-0.15627623 0.30569059 -1.3073281
-0.146026 0.30647153 -1.3080351
-0.13635546 0.30735636 -1.3089274
-0.20009999 0.31617144 -1.3065144
-0.19493283 0.31483689 -1.3041031
-0.15541282 0.31492072 -1.3036283
-0.14525044 0.31546617 -1.3036956
-0.13488302 0.31530932 -1.3057536
-0.12856333 0.31452334 -1.3087333
-0.20214625 0.32562 -1.306525
-0.19679929 0.32316142 -1.3013214
-0.18510152 0.32210153 -1.3020384
-0.14348748 0.32311499 -1.3014001
-0.13391165 0.324195 -1.3023834
-0.12854125 0.3252975 -1.305225
-0.20250714 0.33576003 -1.3051001
-0.13054 0.33120999 -1.3001
-0.12858999 0.33426124 -1.3049001
-0.20240751 0.34435251 -1.301675
-0.12854999 0.34586 -1.3005
-0.1575 0.30588001 -1.3
-0.19178601 0.31789598 -1.2969201
-0.15447001 0.31817248 -1.2993
-0.19499937 0.32620656 -1.2980093
-0.18471213 0.32584235 -1.2963659
-0.14572808 0.32611099 -1.2972193
-0.13602856 0.32700524 -1.2979189
-0.20193 0.336465 -1.29805
-0.19533499 0.33485851 -1.2945684
-0.18530741 0.33399835 -1.2929838
-0.17477342 0.33512706 -1.2927512
-0.13462323 0.33509961 -1.2954701
-0.12841333 0.33706668 -1.2972333
-0.20202111 0.34555557 -1.2967889
-0.19574666 0.34294179 -1.291718
-0.187241 0.34259501 -1.2914898
-0.17415 0.34056333 -1.2904
-0.16553399 0.34157902 -1.2929299
-0.12843584 0.34466329 -1.2961
-0.20193751 0.35512999 -1.2932001
-0.20206167 0.36172667 -1.2928166
-0.17493001 0.32872251 -1.2892751
-0.19287001 0.33849001 -1.2895
-0.18273933 0.33761403 -1.2883534
-0.17745714 0.33876857 -1.2866571
-0.1646357 0.33860999 -1.2860144
-0.20153999 0.34957001 -1.29
-0.19440192 0.34703869 -1.2870287
-0.1842915 0.34588563 -1.2864234
-0.17502415 0.34554878 -1.2857214
-0.1658221 0.34592333 -1.2854196
-0.20157999 0.35402501 -1.28925
-0.19521904 0.35504743 -1.2836939
-0.18417315 0.35447741 -1.2821357
-0.17488451 0.35472709 -1.2821387
-0.1653505 0.35507011 -1.2823455
-0.1551279 0.35489085 -1.2826796
-0.20148551 0.36621523 -1.2847308
-0.19598046 0.36422184 -1.2812654
-0.1839935 0.36607563 -1.281726
-0.17499444 0.36608458 -1.2820411
-0.16600785 0.36501601 -1.2810807
-0.15462688 0.36346 -1.280975
-0.1444138 0.36336505 -1.2814941
-0.19260627 0.35779619 -1.2791876
-0.18480119 0.35757598 -1.2790642
-0.17539284 0.35838476 -1.2784286
-0.16637158 0.35812101 -1.2782789
-0.15485092 0.35803822 -1.2788364
-0.14598624 0.35855252 -1.2792624
-0.20103499 0.3668175 -1.2792001
-0.19416536 0.36498654 -1.2766241
-0.1848243 0.36444348 -1.2761689
-0.17561568 0.3646735 -1.2763168
-0.16528095 0.36483344 -1.2768339
-0.15519942 0.36492172 -1.2777247
-0.14481731 0.36512232 -1.2776215
