# .PCD v0.7 - Point Cloud Data file format
VERSION 0.7
FIELDS x y z
SIZE 4 4 4
TYPE F F F
COUNT 1 1 1
WIDTH 170
HEIGHT 1
VIEWPOINT 0 0 0 1 0 0 0
POINTS 170
DATA ascii
0.74842 -0.34720001 -1.6902
0.75260001 -0.34077999 -1.6927
0.69279999 -0.36102 -1.6811
0.72209001 -0.34520999 -1.6806
0.73475003 -0.34198001 -1.6854
0.74575007 -0.34404001 -1.6840625
0.75185502 -0.34486002 -1.6870999
0.76087999 -0.34329 -1.6876
0.68787003 -0.36067 -1.6711
0.70059001 -0.35495001 -1.6772
0.73587 -0.35014999 -1.6791
0.70789999 -0.34876001 -1.6724
0.71885997 -0.34560001 -1.6741
0.73507124 -0.34480998 -1.6752625
0.67344999 -0.36381999 -1.6617
0.77155 -0.36334002 -1.66345
0.6929 -0.35345 -1.6619999
0.71836662 -0.35282996 -1.6671333
0.72443432 -0.35303858 -1.6669856
0.77748001 -0.35639599 -1.6627201
0.78552246 -0.35518625 -1.6670001
0.65100998 -0.37445 -1.6546
0.74783999 -0.36515999 -1.6519001
0.7559343 -0.36414856 -1.6540285
0.7637167 -0.36297998 -1.6578001
0.67464 -0.35890502 -1.65475
0.76506698 -0.35545599 -1.6558399
0.77246571 -0.35425285 -1.6586715
0.63444138 -0.38096714 -1.6440144
0.64112002 -0.382085 -1.64235
0.63739753 -0.37896502 -1.645775
0.64508718 -0.37617141 -1.6446142
0.72504997 -0.3744075 -1.642875
0.73623997 -0.37241331 -1.6481333
0.73558402 -0.36577803 -1.6437299
0.74453753 -0.36398128 -1.64755
0.75165999 -0.363745 -1.6494
0.63442427 -0.38512996 -1.6348572
0.64115667 -0.38355336 -1.6338334
0.70270002 -0.38277501 -1.6342
0.6426416 -0.37664834 -1.6351
0.70910335 -0.37474 -1.6329666
0.71546996 -0.37273374 -1.6355624
0.72123998 -0.37436 -1.6389
0.70341575 -0.37361431 -1.6281286
-0.93958002 -0.42805001 -1.5741
0.92708999 -0.40035999 -1.5709
-0.93269002 -0.42789999 -1.5615
0.92752498 -0.41340664 -1.5653332
0.92723995 -0.40761665 -1.56645
-0.92941999 -0.43098 -1.5423
-0.89713001 -0.46430999 -1.5036
-0.73777002 -0.46524 -1.4902
-0.93798 -0.47771001 -1.4892
-0.93347001 -0.46992999 -1.4895999
-0.73283339 -0.47527334 -1.4778
-0.92483997 -0.46989 -1.4743
-0.73159999 -0.46551001 -1.4758
-0.92800498 -0.477685 -1.4686
-0.72729498 -0.472305 -1.467
-0.92412001 -0.47773999 -1.4588
-0.89877999 -0.50564998 -1.4098001
-0.85636002 -0.53465998 -1.3845
-0.84946001 -0.53432 -1.3715
-0.75919998 -0.54321998 -1.3661
-0.90544999 -0.54433751 -1.3533
-0.90200001 -0.53705001 -1.3585
-0.90205997 -0.55944002 -1.3328
-0.89943999 -0.55265999 -1.3311
-0.77648997 -0.55674666 -1.3339
-0.78419501 -0.56462002 -1.3245001
-0.77842999 -0.56040001 -1.3204
-0.77743495 -0.55879748 -1.3235
-0.89544499 -0.56160498 -1.3120999
-0.78248423 -0.56420428 -1.3161286
-0.77657002 -0.56035 -1.3166
-0.82084 -0.55817997 -1.3186001
-0.81642997 -0.55391997 -1.3118
-0.78069001 -0.55993003 -1.3193001
-0.77749997 -0.55848998 -1.3193001
-0.91096002 -0.57490999 -1.3034
-0.90258002 -0.57392502 -1.3083501
-0.79257995 -0.57685 -1.3009
-0.78636336 -0.57136995 -1.3024668
-0.90540999 -0.56361997 -1.3096
-0.89775002 -0.56932998 -1.3046
-0.78491664 -0.56792331 -1.3068833
-0.89122498 -0.55493498 -1.30755
-0.79751003 -0.58051997 -1.2917
-0.90666997 -0.57088 -1.2977999
-0.80834001 -0.57863998 -1.291
-0.79293996 -0.57740337 -1.2917
-0.78788495 -0.57230002 -1.2993
-0.78622001 -0.56909001 -1.2973
-0.91226 -0.58521003 -1.2849
-0.79399002 -0.58219498 -1.28685
-0.89262003 -0.57738 -1.28135
-0.79312003 -0.57875502 -1.2895501
-0.78922999 -0.57542002 -1.289
-0.79710001 -0.59002 -1.2751
-0.90635002 -0.58322001 -1.2704
-0.79751331 -0.5870567 -1.2754
-0.90142 -0.57893002 -1.2745
-0.7948575 -0.57565749 -1.2758
-0.79104 -0.58073997 -1.2617
-0.78983003 -0.58710003 -1.262
-0.87866998 -0.60255003 -1.2558
-0.88845503 -0.592215 -1.2565501
-0.87357497 -0.59429997 -1.2560999
-0.79054999 -0.58797002 -1.2574
-0.78909498 -0.58244503 -1.25705
-0.79272997 -0.57986999 -1.2598
-0.88793999 -0.61097997 -1.2413
-0.81253999 -0.60255003 -1.243
-0.87340999 -0.59559 -1.2445
-0.86434996 -0.59622002 -1.2361
-0.85503 -0.59672499 -1.2325001
-0.88257003 -0.61849999 -1.2280999
-0.84710002 -0.61648995 -1.2262001
-0.77211666 -0.61304998 -1.2214
-0.76494908 -0.61556882 -1.2251626
-0.80304003 -0.60275 -1.2246
-0.76732004 -0.60960001 -1.2256501
-0.85105002 -0.59919 -1.2294
-0.84842998 -0.59851998 -1.225
-0.76519567 -0.62203044 -1.2143999
-0.87557495 -0.61188996 -1.21655
-0.83885002 -0.61781502 -1.2193
-0.77316046 -0.61410856 -1.2154809
-0.76755691 -0.61563849 -1.2167846
-0.84581 -0.60764998 -1.2158
-0.80166 -0.60637498 -1.2146499
-0.79592001 -0.60811001 -1.2136
-0.88145 -0.62768501 -1.2082
-0.87502003 -0.62063003 -1.2085
-0.83056003 -0.62168998 -1.202
-0.82839501 -0.62496001 -1.20705
-0.76644546 -0.62368459 -1.2073462
-0.75683999 -0.62470001 -1.2077999
-0.81799001 -0.63077003 -1.1952
-0.75121999 -0.62427002 -1.1935
-0.74208999 -0.62849498 -1.19495
-0.73693001 -0.62548 -1.197
-0.75686002 -0.61996001 -1.1961
-0.74226999 -0.61680001 -1.1900001
-0.81375498 -0.63436252 -1.1866
-0.80817002 -0.639 -1.183
-0.73225999 -0.63920999 -1.1855
-0.72820997 -0.63409662 -1.1872667
-0.75430501 -0.62219501 -1.1868999
-0.72712505 -0.62497497 -1.18205
-0.72358751 -0.64252996 -1.1721501
-0.72186416 -0.63555914 -1.1726999
-0.72452223 -0.64524472 -1.1668411
-0.78710335 -0.63607001 -1.1528333
-0.86332667 -0.65759426 -1.1429238
-0.85952997 -0.65627003 -1.1409
-0.85639 -0.64670998 -1.1459
-0.78278923 -0.64533919 -1.1432749
-0.77948332 -0.64539003 -1.1417
-0.86075997 -0.654975 -1.1386499
-0.8558262 -0.65296131 -1.133975
-0.78167748 -0.65477258 -1.1371275
-0.77696055 -0.65439761 -1.1360244
-0.85448003 -0.64994001 -1.1303999
-0.78139794 -0.64529794 -1.1372401
-0.77784055 -0.64698005 -1.1351666
-0.85576499 -0.65116501 -1.1294501
-0.77309 -0.65000999 -1.13
-0.85091245 -0.6493575 -1.1283001
